76.7061090483892087 12.2847759206838987 1525
76.7063785429744485 12.2847759206838987 1400.5
76.706648037559674 12.2847759206838987 1400.5
76.7069175321449137 12.2847759206838987 1337.5
76.7071870267301534 12.2847759206838987 1337.5
76.7074565213153932 12.2847759206838987 1344.5
76.7077260159006187 12.2847759206838987 1344.5
76.7079955104858584 12.2847759206838987 1349
76.7082650050710981 12.2847759206838987 1349
76.7085344996563236 12.2847759206838987 1362
76.7061090483892087 12.2845064260986625 1525
76.7063785429744485 12.2845064260986625 1400.5
76.706648037559674 12.2845064260986625 1400.5
76.7069175321449137 12.2845064260986625 1337.5
76.7071870267301534 12.2845064260986625 1337.5
76.7074565213153932 12.2845064260986625 1344.5
76.7077260159006187 12.2845064260986625 1344.5
76.7079955104858584 12.2845064260986625 1349
76.7082650050710981 12.2845064260986625 1349
76.7085344996563236 12.2845064260986625 1362
76.7061090483892087 12.2842369315134263 1508.5
76.7063785429744485 12.2842369315134263 1391.5
76.706648037559674 12.2842369315134263 1391.5
76.7069175321449137 12.2842369315134263 1340
76.7071870267301534 12.2842369315134263 1340
76.7074565213153932 12.2842369315134263 1329
76.7077260159006187 12.2842369315134263 1329
76.7079955104858584 12.2842369315134263 1311.5
76.7082650050710981 12.2842369315134263 1311.5
76.7085344996563236 12.2842369315134263 1357
76.7061090483892087 12.2839674369281919 1508.5
76.7063785429744485 12.2839674369281919 1391.5
76.706648037559674 12.2839674369281919 1391.5
76.7069175321449137 12.2839674369281919 1340
76.7071870267301534 12.2839674369281919 1340
76.7074565213153932 12.2839674369281919 1329
76.7077260159006187 12.2839674369281919 1329
76.7079955104858584 12.2839674369281919 1311.5
76.7082650050710981 12.2839674369281919 1311.5
76.7085344996563236 12.2839674369281919 1357
76.7061090483892087 12.2836979423429558 1496.5
76.7063785429744485 12.2836979423429558 1430.5
76.706648037559674 12.2836979423429558 1430.5
76.7069175321449137 12.2836979423429558 1303
76.7071870267301534 12.2836979423429558 1303
76.7074565213153932 12.2836979423429558 1327
76.7077260159006187 12.2836979423429558 1327
76.7079955104858584 12.2836979423429558 1330.5
76.7082650050710981 12.2836979423429558 1330.5
76.7085344996563236 12.2836979423429558 1351
76.7061090483892087 12.2834284477577196 1496.5
76.7063785429744485 12.2834284477577196 1430.5
76.706648037559674 12.2834284477577196 1430.5
76.7069175321449137 12.2834284477577196 1303
76.7071870267301534 12.2834284477577196 1303
76.7074565213153932 12.2834284477577196 1327
76.7077260159006187 12.2834284477577196 1327
76.7079955104858584 12.2834284477577196 1330.5
76.7082650050710981 12.2834284477577196 1330.5
76.7085344996563236 12.2834284477577196 1351
76.7061090483892087 12.2831589531724834 1516.5
76.7063785429744485 12.2831589531724834 1405
76.706648037559674 12.2831589531724834 1405
76.7069175321449137 12.2831589531724834 1280.5
76.7071870267301534 12.2831589531724834 1280.5
76.7074565213153932 12.2831589531724834 1295
76.7077260159006187 12.2831589531724834 1295
76.7079955104858584 12.2831589531724834 1325.5
76.7082650050710981 12.2831589531724834 1325.5
76.7085344996563236 12.2831589531724834 1402.5
76.7061090483892087 12.2828894585872472 1516.5
76.7063785429744485 12.2828894585872472 1405
76.706648037559674 12.2828894585872472 1405
76.7069175321449137 12.2828894585872472 1280.5
76.7071870267301534 12.2828894585872472 1280.5
76.7074565213153932 12.2828894585872472 1295
76.7077260159006187 12.2828894585872472 1295
76.7079955104858584 12.2828894585872472 1325.5
76.7082650050710981 12.2828894585872472 1325.5
76.7085344996563236 12.2828894585872472 1402.5
76.7061090483892087 12.2826199640020128 1522.5
76.7063785429744485 12.2826199640020128 1375.5
76.706648037559674 12.2826199640020128 1375.5
76.7069175321449137 12.2826199640020128 1300.5
76.7071870267301534 12.2826199640020128 1300.5
76.7074565213153932 12.2826199640020128 1304.5
76.7077260159006187 12.2826199640020128 1304.5
76.7079955104858584 12.2826199640020128 1353
76.7082650050710981 12.2826199640020128 1353
76.7085344996563236 12.2826199640020128 1459.5
76.7061090483892087 12.2823504694167767 1522.5
76.7063785429744485 12.2823504694167767 1375.5
76.706648037559674 12.2823504694167767 1375.5
76.7069175321449137 12.2823504694167767 1300.5
76.7071870267301534 12.2823504694167767 1300.5
76.7074565213153932 12.2823504694167767 1304.5
76.7077260159006187 12.2823504694167767 1304.5
76.7079955104858584 12.2823504694167767 1353
76.7082650050710981 12.2823504694167767 1353
76.7085344996563236 12.2823504694167767 1459.5
